x,y,z,nx,ny,nz
-2.571599930524826050e-02,-4.492000043392181396e-01,-1.425540000200271606e-01,0.000000000000000000e+00,-1.917379945516586304e-01,-9.814460277557373047e-01
3.762000054121017456e-02,-4.691390097141265869e-01,3.184400126338005066e-02,9.899899959564208984e-01,9.999999747378751636e-06,1.411350071430206299e-01
6.201699972152709961e-01,1.746760010719299316e-01,-1.054800022393465042e-02,1.013260036706924438e-01,-9.999999974752427079e-07,9.948530197143554688e-01
6.297100335359573364e-02,-1.102500036358833313e-02,-1.798849999904632568e-01,5.010449886322021484e-01,-7.000000096013536677e-06,-8.654209971427917480e-01
5.276799947023391724e-02,-7.379999849945306778e-03,-1.857919991016387939e-01,5.009739995002746582e-01,0.000000000000000000e+00,-8.654620051383972168e-01
1.091710031032562256e-01,-5.243499875068664551e-01,-1.204689964652061462e-01,9.487169981002807617e-01,-4.999999873689375818e-06,-3.161259889602661133e-01
-7.145100086927413940e-02,-2.872210144996643066e-01,-9.246099740266799927e-02,-9.901970028877258301e-01,-1.396780014038085938e-01,9.999999747378751636e-06
-3.561410009860992432e-01,1.226300001144409180e-01,2.139800041913986206e-02,-5.093099921941757202e-02,0.000000000000000000e+00,9.987019896507263184e-01
-6.628700345754623413e-02,-3.059000009670853615e-03,-3.157100081443786621e-02,-1.000000000000000000e+00,-0.000000000000000000e+00,0.000000000000000000e+00
2.110249996185302734e-01,-6.960480213165283203e-01,3.075740039348602295e-01,-0.000000000000000000e+00,0.000000000000000000e+00,1.000000000000000000e+00
-8.839820027351379395e-01,-5.077800154685974121e-02,-2.432299964129924774e-02,-1.268700063228607178e-01,0.000000000000000000e+00,9.919189810752868652e-01
3.055799938738346100e-02,-6.356570124626159668e-01,8.111400157213211060e-02,9.898890256881713867e-01,3.000000106112565845e-06,1.418450027704238892e-01
1.112980023026466370e-01,-2.096969932317733765e-01,-9.425599873065948486e-02,9.987930059432983398e-01,0.000000000000000000e+00,4.910700023174285889e-02
1.617499999701976776e-02,3.512099981307983398e-01,4.422799870371818542e-02,0.000000000000000000e+00,0.000000000000000000e+00,1.000000000000000000e+00
1.073860004544258118e-01,-1.405199989676475525e-02,-7.079400122165679932e-02,9.131690263748168945e-01,6.000000212225131691e-06,4.075810015201568604e-01
-1.735319942235946655e-01,2.701590061187744141e-01,2.704299986362457275e-02,-2.554799988865852356e-02,0.000000000000000000e+00,9.996740221977233887e-01
5.259399861097335815e-02,-1.343829929828643799e-01,-1.787710040807723999e-01,0.000000000000000000e+00,-3.893600031733512878e-02,-9.992420077323913574e-01
-4.500599950551986694e-02,6.461100280284881592e-02,-1.727280020713806152e-01,-5.009739995002746582e-01,0.000000000000000000e+00,-8.654620051383972168e-01
1.119880005717277527e-01,3.363040089607238770e-01,-1.120209991931915283e-01,9.486730098724365234e-01,0.000000000000000000e+00,-3.162580132484436035e-01
6.226840019226074219e-01,1.866440027952194214e-01,-3.039599955081939697e-02,4.879789948463439941e-01,8.728550076484680176e-01,7.120000082068145275e-04
-5.267329812049865723e-01,1.896079927682876587e-01,1.146799977868795395e-02,-7.629700005054473877e-02,0.000000000000000000e+00,9.970849752426147461e-01
2.979489862918853760e-01,-6.851779818534851074e-01,3.075740039348602295e-01,-0.000000000000000000e+00,0.000000000000000000e+00,1.000000000000000000e+00
-4.154880046844482422e-01,2.090290039777755737e-01,-1.183000020682811737e-02,2.288299985229969025e-02,9.999999974752427079e-07,-9.997379779815673828e-01
1.166469976305961609e-01,-1.070929989218711853e-01,1.824199967086315155e-02,9.928249716758728027e-01,-1.195740029215812683e-01,6.610000273212790489e-04
-4.848000127822160721e-03,-5.829240083694458008e-01,1.980810016393661499e-01,-9.950559735298156738e-01,3.000000106112565845e-06,9.931299835443496704e-02
7.572990059852600098e-01,1.017720028758049011e-01,-4.016299918293952942e-02,-7.941299676895141602e-02,0.000000000000000000e+00,-9.968420267105102539e-01
4.104000050574541092e-03,4.828769862651824951e-01,4.422799870371818542e-02,-0.000000000000000000e+00,0.000000000000000000e+00,1.000000000000000000e+00
-1.324650049209594727e-01,4.484899938106536865e-01,1.017600018531084061e-02,-4.721420109272003174e-01,8.815230131149291992e-01,0.000000000000000000e+00
-1.531200017780065536e-02,-4.540979862213134766e-01,-1.415970027446746826e-01,0.000000000000000000e+00,-1.917379945516586304e-01,-9.814460277557373047e-01
2.839899994432926178e-02,2.079979926347732544e-01,-1.913529932498931885e-01,1.731510013341903687e-01,0.000000000000000000e+00,-9.848949909210205078e-01
-6.628700345754623413e-02,4.403119981288909912e-01,-1.889899931848049164e-02,-1.000000000000000000e+00,-0.000000000000000000e+00,0.000000000000000000e+00
-4.748899862170219421e-02,5.549899861216545105e-02,-1.712909936904907227e-01,-5.009739995002746582e-01,0.000000000000000000e+00,-8.654620051383972168e-01
-1.185149997472763062e-01,3.656490147113800049e-01,2.747900038957595825e-02,-1.440000050934031606e-04,0.000000000000000000e+00,1.000000000000000000e+00
-2.029500007629394531e-01,-6.677340269088745117e-01,3.075740039348602295e-01,-0.000000000000000000e+00,-0.000000000000000000e+00,1.000000000000000000e+00
2.156399935483932495e-02,-7.113149762153625488e-01,1.438730061054229736e-01,9.898899793624877930e-01,0.000000000000000000e+00,1.418399959802627563e-01
5.931999906897544861e-02,-4.975619912147521973e-01,3.023760020732879639e-01,-0.000000000000000000e+00,2.349189966917037964e-01,9.720150232315063477e-01
5.209799855947494507e-02,-4.701560139656066895e-01,2.629099972546100616e-02,2.524299919605255127e-02,0.000000000000000000e+00,9.996809959411621094e-01
2.907570004463195801e-01,1.524569988250732422e-01,-1.321200001984834671e-02,-3.727599978446960449e-02,-0.000000000000000000e+00,-9.993050098419189453e-01
3.164150118827819824e-01,2.233729958534240723e-01,-1.418299973011016846e-02,-4.329200088977813721e-02,0.000000000000000000e+00,-9.990620017051696777e-01
9.338899701833724976e-02,6.770970225334167480e-01,-1.535010039806365967e-01,7.728400230407714844e-01,-9.200000204145908356e-05,-6.346009969711303711e-01
-6.628700345754623413e-02,-6.136469841003417969e-01,-1.343499962240457535e-02,-1.000000000000000000e+00,-0.000000000000000000e+00,0.000000000000000000e+00
1.000590026378631592e-01,5.282869935035705566e-01,-1.399109959602355957e-01,1.000000000000000000e+00,0.000000000000000000e+00,0.000000000000000000e+00
5.099999907542951405e-05,1.450629979372024536e-01,-1.910230070352554321e-01,-1.731510013341903687e-01,0.000000000000000000e+00,-9.848949909210205078e-01
2.395969927310943604e-01,2.072419971227645874e-01,-1.131699979305267334e-02,-3.124899975955486298e-02,-0.000000000000000000e+00,-9.995120167732238770e-01
8.252099901437759399e-02,-3.905049860477447510e-01,-7.007000036537647247e-03,9.928259849548339844e-01,-1.195719987154006958e-01,0.000000000000000000e+00
2.538299933075904846e-02,-3.036600053310394287e-01,-1.661279946565628052e-01,-0.000000000000000000e+00,-1.156580001115798950e-01,-9.932889938354492188e-01
-7.260800004005432129e-01,-3.108999924734234810e-03,-6.012999918311834335e-03,-1.016110032796859741e-01,0.000000000000000000e+00,9.948239922523498535e-01
7.802300155162811279e-02,-5.347539782524108887e-01,-1.228950023651123047e-01,6.000000212225131691e-06,-2.419019937515258789e-01,-9.703009724617004395e-01
-5.372500047087669373e-02,-8.749599754810333252e-02,2.438999945297837257e-03,0.000000000000000000e+00,-0.000000000000000000e+00,1.000000000000000000e+00
5.937200188636779785e-01,3.788200020790100098e-02,-7.853999733924865723e-03,1.013249978423118591e-01,0.000000000000000000e+00,9.948530197143554688e-01
1.435389965772628784e-01,3.716430068016052246e-01,2.398099936544895172e-02,2.526099979877471924e-02,-0.000000000000000000e+00,9.996809959411621094e-01
-6.987699866294860840e-02,2.795189917087554932e-01,-1.452129930257797241e-01,-7.724620103836059570e-01,0.000000000000000000e+00,-6.350600123405456543e-01
5.739650130271911621e-01,1.662099920213222504e-02,-5.841999780386686325e-03,1.013249978423118591e-01,0.000000000000000000e+00,9.948530197143554688e-01
-6.628700345754623413e-02,6.823559999465942383e-01,-3.809700161218643188e-02,-1.000000000000000000e+00,0.000000000000000000e+00,0.000000000000000000e+00
-3.001739978790283203e-01,2.262970060110092163e-01,-9.486000053584575653e-03,1.824999973177909851e-02,0.000000000000000000e+00,-9.998329877853393555e-01
-4.531799852848052979e-01,2.295569926500320435e-01,-1.276099961251020432e-02,2.750799991190433502e-02,0.000000000000000000e+00,-9.996219873428344727e-01
8.001600205898284912e-02,7.835800200700759888e-02,-1.697749942541122437e-01,7.724729776382446289e-01,0.000000000000000000e+00,-6.350470185279846191e-01
1.075199991464614868e-02,-6.147289872169494629e-01,3.075740039348602295e-01,-0.000000000000000000e+00,0.000000000000000000e+00,1.000000000000000000e+00
2.878620028495788574e-01,1.603309959173202515e-01,-1.310400012880563736e-02,-3.727599978446960449e-02,-0.000000000000000000e+00,-9.993050098419189453e-01
2.159300073981285095e-02,-6.383119821548461914e-01,3.075740039348602295e-01,-0.000000000000000000e+00,0.000000000000000000e+00,1.000000000000000000e+00
8.257099986076354980e-02,-2.305649966001510620e-01,-1.666660010814666748e-01,7.724729776382446289e-01,0.000000000000000000e+00,-6.350470185279846191e-01
-8.759199976921081543e-01,-2.730599977076053619e-02,-2.936100028455257416e-02,5.064500123262405396e-02,0.000000000000000000e+00,-9.987170100212097168e-01
6.863500177860260010e-02,8.747379779815673828e-01,-1.051129996776580811e-01,9.719319939613342285e-01,2.352599948644638062e-01,1.999999994950485416e-06
-7.043799757957458496e-02,-1.711349934339523315e-01,-7.302999962121248245e-03,4.360000137239694595e-03,-0.000000000000000000e+00,-9.999909996986389160e-01
-1.875099912285804749e-02,-6.660490036010742188e-01,5.877700075507164001e-02,-9.950619935989379883e-01,7.699999696342274547e-05,9.926000237464904785e-02
-7.696100324392318726e-02,4.737000167369842529e-02,-7.057999819517135620e-02,-9.132099747657775879e-01,3.000000106112565845e-06,4.074899852275848389e-01
-7.764700055122375488e-02,-6.709259748458862305e-01,-7.333999965339899063e-03,4.362999927252531052e-03,0.000000000000000000e+00,-9.999899864196777344e-01
-6.754799932241439819e-02,1.219390034675598145e-01,-4.948899894952774048e-02,-9.131770133972167969e-01,0.000000000000000000e+00,4.075630009174346924e-01
1.195290014147758484e-01,2.923200130462646484e-01,2.458699978888034821e-02,2.525799907743930817e-02,-9.999999974752427079e-07,9.996809959411621094e-01
4.378780126571655273e-01,2.551040053367614746e-01,-1.975500024855136871e-02,-4.932599887251853943e-02,0.000000000000000000e+00,-9.987829923629760742e-01
4.925419986248016357e-01,2.519799955189228058e-02,-2.265599928796291351e-02,-5.533999949693679810e-02,-0.000000000000000000e+00,-9.984679818153381348e-01
-7.999099791049957275e-02,-1.022300031036138535e-02,-1.170350015163421631e-01,-9.485890269279479980e-01,0.000000000000000000e+00,-3.165099918842315674e-01
-4.957990050315856934e-01,1.711319983005523682e-01,-1.393400039523839951e-02,2.750799991190433502e-02,0.000000000000000000e+00,-9.996219873428344727e-01
-2.096820026636123657e-01,2.156810015439987183e-01,-8.229999803006649017e-03,8.995000272989273071e-03,0.000000000000000000e+00,-9.999600052833557129e-01
7.726000249385833740e-02,8.341180086135864258e-01,-1.555929929018020630e-01,0.000000000000000000e+00,-3.860790133476257324e-01,-9.224659800529479980e-01
-7.626410126686096191e-01,5.512999836355447769e-03,-9.747999720275402069e-03,-1.016110032796859741e-01,0.000000000000000000e+00,9.948239922523498535e-01
2.329800091683864594e-02,4.843400046229362488e-02,5.973000079393386841e-03,0.000000000000000000e+00,-2.407200038433074951e-01,9.705939888954162598e-01
-2.900299988687038422e-02,9.039859771728515625e-01,-2.017999999225139618e-03,0.000000000000000000e+00,5.508750081062316895e-01,8.345879912376403809e-01
4.384849965572357178e-01,3.523999825119972229e-02,2.701000077649950981e-03,9.999999747378751636e-06,-2.407180070877075195e-01,9.705950021743774414e-01
5.646900087594985962e-02,9.249899983406066895e-01,-5.616199970245361328e-02,9.719240069389343262e-01,2.352949976921081543e-01,1.999999994950485416e-06
8.971799910068511963e-02,-3.307319879531860352e-01,-1.175080016255378723e-01,9.928299784660339355e-01,-1.195380017161369324e-01,-2.400000084890052676e-05
-8.140300214290618896e-02,-4.618610143661499023e-01,-1.030000001192092896e-01,-9.987829923629760742e-01,0.000000000000000000e+00,4.931100085377693176e-02
-9.577500075101852417e-02,-6.441370248794555664e-01,3.075740039348602295e-01,-0.000000000000000000e+00,-0.000000000000000000e+00,1.000000000000000000e+00
4.175300151109695435e-02,-4.512540102005004883e-01,2.655199915170669556e-02,2.524299919605255127e-02,0.000000000000000000e+00,9.996809959411621094e-01
8.240299671888351440e-02,7.522779703140258789e-01,2.760300040245056152e-02,0.000000000000000000e+00,5.743899941444396973e-02,9.983490109443664551e-01
-6.460800021886825562e-02,-2.479909956455230713e-01,9.996999986469745636e-03,0.000000000000000000e+00,1.922529935836791992e-01,9.813449978828430176e-01
-7.840199768543243408e-02,2.118500024080276489e-01,2.748399972915649414e-02,-1.429999974789097905e-04,-0.000000000000000000e+00,1.000000000000000000e+00
4.504299908876419067e-02,9.516900181770324707e-01,-1.078109964728355408e-01,0.000000000000000000e+00,6.834740042686462402e-01,-7.299739718437194824e-01
1.000590026378631592e-01,5.747479796409606934e-01,-7.831999659538269043e-02,1.000000000000000000e+00,-0.000000000000000000e+00,0.000000000000000000e+00
-7.508700340986251831e-02,5.610380172729492188e-01,-1.047160029411315918e-01,-1.000000000000000000e+00,-0.000000000000000000e+00,-0.000000000000000000e+00
-5.248259902000427246e-01,5.209600180387496948e-02,-1.478799991309642792e-02,3.212999925017356873e-02,0.000000000000000000e+00,-9.994840025901794434e-01
2.755039930343627930e-01,-6.777189970016479492e-01,3.075740039348602295e-01,-0.000000000000000000e+00,0.000000000000000000e+00,1.000000000000000000e+00
3.865100070834159851e-02,-1.849739998579025269e-01,-1.766400039196014404e-01,0.000000000000000000e+00,-6.456000357866287231e-02,-9.979140162467956543e-01
-8.602900058031082153e-02,-6.211699917912483215e-02,2.748299948871135712e-02,-1.429999974789097905e-04,-0.000000000000000000e+00,1.000000000000000000e+00
7.897400259971618652e-01,8.897399902343750000e-02,-4.274800047278404236e-02,-7.941299676895141602e-02,0.000000000000000000e+00,-9.968420267105102539e-01
9.648399800062179565e-02,-2.745310068130493164e-01,2.081100083887577057e-02,9.928280115127563477e-01,-1.195520013570785522e-01,-2.209999947808682919e-04
3.042539954185485840e-01,1.272370070219039917e-01,1.638800092041492462e-02,5.064399912953376770e-02,0.000000000000000000e+00,9.987170100212097168e-01
-2.043900080025196075e-02,-6.939839720726013184e-01,2.846179902553558350e-01,2.925199866294860840e-01,-9.562600255012512207e-01,0.000000000000000000e+00
-1.543570011854171753e-01,7.885300368070602417e-02,1.351800002157688141e-02,-9.999999974752427079e-07,-2.407110035419464111e-01,9.705970287322998047e-01
6.236900016665458679e-02,-3.500030040740966797e-01,4.908600077033042908e-02,0.000000000000000000e+00,5.022779703140258789e-01,8.647059798240661621e-01
-4.966999962925910950e-02,7.507060170173645020e-01,-1.697929948568344116e-01,-7.739700078964233398e-01,1.299999985349131748e-05,-6.332219839096069336e-01
1.420850008726119995e-01,-6.396039724349975586e-01,-8.431999944150447845e-03,-2.521800063550472260e-02,-0.000000000000000000e+00,-9.996820092201232910e-01
-4.389759898185729980e-01,2.746489942073822021e-01,1.717299968004226685e-02,-5.093099921941757202e-02,0.000000000000000000e+00,9.987019896507263184e-01
-3.468000097200274467e-03,6.212009787559509277e-01,-1.600569933652877808e-01,0.000000000000000000e+00,9.481099992990493774e-02,-9.954950213432312012e-01
4.866620004177093506e-01,8.052799850702285767e-02,-2.232999913394451141e-02,-5.533999949693679810e-02,-0.000000000000000000e+00,-9.984679818153381348e-01
9.661699831485748291e-02,2.321700006723403931e-01,-3.468300029635429382e-02,1.000000000000000000e+00,-0.000000000000000000e+00,0.000000000000000000e+00
-6.296479701995849609e-01,1.409499999135732651e-02,3.592999884858727455e-03,-7.629700005054473877e-02,0.000000000000000000e+00,9.970849752426147461e-01
-4.329200088977813721e-01,1.181410029530525208e-01,1.748199947178363800e-02,-5.093099921941757202e-02,0.000000000000000000e+00,9.987019896507263184e-01
8.615899831056594849e-02,2.297330051660537720e-01,-1.623020023107528687e-01,7.724980115890502930e-01,1.999999994950485416e-06,-6.350179910659790039e-01
7.788799703121185303e-02,-4.289729893207550049e-01,-4.548300057649612427e-02,9.928259849548339844e-01,-1.195719987154006958e-01,0.000000000000000000e+00
4.300999920815229416e-03,-5.093140006065368652e-01,3.049249947071075439e-01,-0.000000000000000000e+00,1.948630064725875854e-01,9.808300137519836426e-01
-1.126710027456283569e-01,-6.814770102500915527e-01,2.747900038957595825e-02,-1.429999974789097905e-04,0.000000000000000000e+00,1.000000000000000000e+00
-2.275200001895427704e-02,9.362729787826538086e-01,-2.505099959671497345e-02,-9.351379871368408203e-01,3.542830049991607666e-01,-1.899999915622174740e-05
1.120700016617774963e-01,1.384219974279403687e-01,-1.099599972367286682e-01,9.987930059432983398e-01,-0.000000000000000000e+00,4.910700023174285889e-02
-1.541720032691955566e-01,3.217119872570037842e-01,2.747300080955028534e-02,-1.440000050934031606e-04,0.000000000000000000e+00,1.000000000000000000e+00
-8.340349793434143066e-01,2.634800039231777191e-02,-1.793400011956691742e-02,-1.268700063228607178e-01,0.000000000000000000e+00,9.919189810752868652e-01
9.214820265769958496e-01,-3.873400017619132996e-02,-5.128400027751922607e-02,1.517840027809143066e-01,-0.000000000000000000e+00,9.884139895439147949e-01
-4.553600028157234192e-02,-4.709390103816986084e-01,-4.224200174212455750e-02,-9.901999831199645996e-01,-1.396590024232864380e-01,0.000000000000000000e+00
-5.114600062370300293e-02,-4.311789870262145996e-01,-1.320199966430664062e-01,-9.901959896087646484e-01,-1.396870017051696777e-01,3.700000161188654602e-05
3.797300159931182861e-02,2.075850069522857666e-01,2.937600016593933105e-02,9.899219870567321777e-01,0.000000000000000000e+00,1.416130065917968750e-01
5.681369900703430176e-01,-9.289999725297093391e-04,-5.249000154435634613e-03,1.013249978423118591e-01,0.000000000000000000e+00,9.948530197143554688e-01
6.938300281763076782e-02,-4.995859861373901367e-01,2.842459976673126221e-01,9.928299784660339355e-01,-1.195390000939369202e-01,0.000000000000000000e+00
5.523909926414489746e-01,8.805099874734878540e-02,-3.645000047981739044e-03,1.013260036706924438e-01,-9.999999974752427079e-07,9.948530197143554688e-01
1.000590026378631592e-01,4.881480038166046143e-01,-5.372500047087669373e-02,1.000000000000000000e+00,0.000000000000000000e+00,0.000000000000000000e+00
-3.458400070667266846e-02,6.405399739742279053e-02,9.847000241279602051e-03,0.000000000000000000e+00,-2.407200038433074951e-01,9.705939888954162598e-01
-4.184199869632720947e-02,-3.482609987258911133e-01,4.807399958372116089e-02,0.000000000000000000e+00,5.022779703140258789e-01,8.647059798240661621e-01
-7.508700340986251831e-02,7.297930121421813965e-01,-8.008699864149093628e-02,-1.000000000000000000e+00,0.000000000000000000e+00,0.000000000000000000e+00
-7.530499994754791260e-02,6.195399910211563110e-02,-1.310860067605972290e-01,-9.486119747161865234e-01,-0.000000000000000000e+00,-3.164409995079040527e-01
-3.941670060157775879e-01,1.164939999580383301e-01,1.945799961686134338e-02,-5.093099921941757202e-02,0.000000000000000000e+00,9.987019896507263184e-01
9.570360183715820312e-01,-4.929700121283531189e-02,-5.728600174188613892e-02,-9.144300222396850586e-02,-0.000000000000000000e+00,-9.958099722862243652e-01
-4.618659913539886475e-01,1.142230033874511719e-01,-1.300000026822090149e-02,2.750799991190433502e-02,0.000000000000000000e+00,-9.996219873428344727e-01
-4.547299817204475403e-02,-4.713869988918304443e-01,-1.219109967350959778e-01,-9.901940226554870605e-01,-1.396960020065307617e-01,4.600000102072954178e-05
2.110950052738189697e-01,-6.233710050582885742e-01,-1.042599976062774658e-02,-3.124899975955486298e-02,0.000000000000000000e+00,-9.995120167732238770e-01
1.086329966783523560e-01,-4.840500056743621826e-01,-1.220830008387565613e-01,9.487169981002807617e-01,-4.999999873689375818e-06,-3.161259889602661133e-01
2.123899944126605988e-02,7.820190191268920898e-01,-1.382479965686798096e-01,0.000000000000000000e+00,1.782190054655075073e-01,-9.839910268783569336e-01
-6.691300272941589355e-01,1.610540002584457397e-01,-1.587699912488460541e-02,-4.721469879150390625e-01,8.815199732780456543e-01,9.600000339560210705e-05
2.540599927306175232e-02,-5.222820043563842773e-01,1.170649975538253784e-01,9.898890256881713867e-01,3.000000106112565845e-06,1.418450027704238892e-01
6.648799777030944824e-02,7.264710068702697754e-01,-1.474110037088394165e-01,0.000000000000000000e+00,1.366280019283294678e-01,-9.906219840049743652e-01
6.771399974822998047e-01,-7.210000185295939445e-04,-1.712599955499172211e-02,1.265809983015060425e-01,0.000000000000000000e+00,9.919559955596923828e-01
-1.093399990350008011e-02,-6.995390057563781738e-01,1.371179968118667603e-01,-9.950550198554992676e-01,1.400000019202707335e-05,9.932000190019607544e-02
-8.564700186252593994e-02,-1.140459999442100525e-01,2.748299948871135712e-02,-1.429999974789097905e-04,-0.000000000000000000e+00,1.000000000000000000e+00
-3.633539974689483643e-01,2.699170112609863281e-01,-1.063999999314546585e-02,1.824999973177909851e-02,0.000000000000000000e+00,-9.998329877853393555e-01
-1.880249977111816406e-01,-6.623650193214416504e-01,2.937729954719543457e-01,-9.904299676418304443e-02,0.000000000000000000e+00,-9.950829744338989258e-01
-6.698200106620788574e-02,2.939699888229370117e-01,-4.822200164198875427e-02,-9.131770133972167969e-01,0.000000000000000000e+00,4.075630009174346924e-01
1.000569984316825867e-01,-2.448810040950775146e-01,-1.067880019545555115e-01,9.928259849548339844e-01,-1.195679977536201477e-01,7.999999979801941663e-06
2.302760034799575806e-01,2.475149929523468018e-01,-1.102599967271089554e-02,-3.124899975955486298e-02,-0.000000000000000000e+00,-9.995120167732238770e-01
-1.936599984765052795e-02,8.107050061225891113e-01,-1.361699998378753662e-01,0.000000000000000000e+00,-7.687759995460510254e-01,-6.395189762115478516e-01
8.490599691867828369e-02,-3.059369921684265137e-01,-1.638199985027313232e-01,7.725179791450500488e-01,-7.599999662488698959e-05,-6.349930167198181152e-01
-4.701700061559677124e-02,8.694009780883789062e-01,4.339999868534505367e-04,-9.754940271377563477e-01,2.200240045785903931e-01,7.000000096013536677e-06
6.630999967455863953e-03,-5.300859808921813965e-01,2.423190027475357056e-01,0.000000000000000000e+00,1.000000000000000000e+00,-0.000000000000000000e+00
3.065870106220245361e-01,1.215109974145889282e-01,1.626900024712085724e-02,5.064399912953376770e-02,0.000000000000000000e+00,9.987170100212097168e-01
-1.012200023978948593e-02,-5.606390237808227539e-01,1.452330052852630615e-01,-9.950540065765380859e-01,-1.299999985349131748e-05,9.933499991893768311e-02
4.603889882564544678e-01,2.654069960117340088e-01,5.047999788075685501e-03,7.600899785757064819e-02,-0.000000000000000000e+00,9.971070289611816406e-01
-6.120799854397773743e-02,8.064720034599304199e-01,7.410000078380107880e-03,-9.755110144615173340e-01,2.199490070343017578e-01,7.000000096013536677e-06
-1.200599968433380127e-02,3.561000153422355652e-02,2.793000079691410065e-03,0.000000000000000000e+00,-2.407200038433074951e-01,9.705939888954162598e-01
9.569100290536880493e-02,7.060409784317016602e-01,-1.502290070056915283e-01,0.000000000000000000e+00,1.366280019283294678e-01,-9.906219840049743652e-01
5.847800150513648987e-02,-3.463380038738250732e-01,4.695700109004974365e-02,0.000000000000000000e+00,5.022779703140258789e-01,8.647059798240661621e-01
-8.450369834899902344e-01,-3.743299841880798340e-02,-1.934199966490268707e-02,-1.268700063228607178e-01,0.000000000000000000e+00,9.919189810752868652e-01
-1.290799956768751144e-02,-4.812580049037933350e-01,1.173299998044967651e-01,-9.950540065765380859e-01,-1.299999985349131748e-05,9.933499991893768311e-02
-2.213229984045028687e-01,-6.400359869003295898e-01,3.034070134162902832e-01,-5.465899705886840820e-01,8.374000191688537598e-01,0.000000000000000000e+00
6.820300221443176270e-02,-2.206079959869384766e-01,2.588400058448314667e-02,2.524800039827823639e-02,1.999999994950485416e-06,9.996809959411621094e-01
1.114439964294433594e-01,2.600609958171844482e-01,-9.723500162363052368e-02,9.987930059432983398e-01,-0.000000000000000000e+00,4.910700023174285889e-02
9.574999660253524780e-02,-2.806310057640075684e-01,2.154899947345256805e-02,9.928280115127563477e-01,-1.195460036396980286e-01,-1.008999999612569809e-03
1.000590026378631592e-01,7.170360088348388672e-01,-1.427920013666152954e-01,1.000000000000000000e+00,0.000000000000000000e+00,0.000000000000000000e+00
-7.473189830780029297e-01,-5.512500181794166565e-02,-2.294100075960159302e-02,2.929109930992126465e-01,-9.561399817466735840e-01,-8.299999899463728070e-05
-6.246300041675567627e-02,2.571620047092437744e-01,-1.542309969663619995e-01,-7.724620103836059570e-01,0.000000000000000000e+00,-6.350600123405456543e-01
-3.111999947577714920e-03,-7.091540098190307617e-01,2.154809981584548950e-01,-9.950550198554992676e-01,1.400000019202707335e-05,9.932000190019607544e-02
2.227240055799484253e-01,-6.654419898986816406e-01,2.052200026810169220e-02,5.064300075173377991e-02,0.000000000000000000e+00,9.987170100212097168e-01
1.000590026378631592e-01,6.175090074539184570e-01,-1.497749984264373779e-01,1.000000000000000000e+00,0.000000000000000000e+00,-0.000000000000000000e+00
-5.024120211601257324e-01,1.088989973068237305e-01,-1.411600038409233093e-02,2.750799991190433502e-02,0.000000000000000000e+00,-9.996219873428344727e-01
9.829899668693542480e-02,4.907920062541961670e-01,-1.475279927253723145e-01,7.725489735603332520e-01,0.000000000000000000e+00,-6.349560022354125977e-01
9.661699831485748291e-02,-7.097039818763732910e-01,-1.166499964892864227e-02,1.000000000000000000e+00,-0.000000000000000000e+00,0.000000000000000000e+00
-3.976399824023246765e-02,7.776070237159729004e-01,2.593399956822395325e-02,0.000000000000000000e+00,7.038500159978866577e-02,9.975200295448303223e-01
2.281759977340698242e-01,-6.652100086212158203e-01,2.024599909782409668e-02,5.064300075173377991e-02,0.000000000000000000e+00,9.987170100212097168e-01
-2.759959995746612549e-01,3.716149926185607910e-01,1.020499970763921738e-02,-4.721420109272003174e-01,8.815230131149291992e-01,0.000000000000000000e+00
5.788859724998474121e-01,1.331800073385238647e-01,-6.343000102788209915e-03,1.013260036706924438e-01,-9.999999974752427079e-07,9.948530197143554688e-01
-3.207600116729736328e-02,5.620300173759460449e-01,-1.648209989070892334e-01,0.000000000000000000e+00,7.383999973535537720e-02,-9.972699880599975586e-01
-1.150010004639625549e-01,2.576389908790588379e-01,-7.497999817132949829e-03,4.360000137239694595e-03,0.000000000000000000e+00,-9.999909996986389160e-01
4.077399894595146179e-02,8.624849915504455566e-01,-1.630180031061172485e-01,0.000000000000000000e+00,-7.908999919891357422e-02,-9.968670010566711426e-01
7.518900185823440552e-02,-4.513899981975555420e-01,-1.380009949207305908e-01,9.928330183029174805e-01,-1.195129975676536560e-01,-4.999999873689375818e-05
5.883700028061866760e-02,1.630070060491561890e-01,2.612099982798099518e-02,2.525799907743930817e-02,-9.999999974752427079e-07,9.996809959411621094e-01
4.877080023288726807e-01,2.575449943542480469e-01,-2.238800004124641418e-02,-5.533999949693679810e-02,0.000000000000000000e+00,-9.984679818153381348e-01
9.305390119552612305e-01,-8.748199790716171265e-02,-5.485299974679946899e-02,-9.144300222396850586e-02,-0.000000000000000000e+00,-9.958099722862243652e-01
-8.547059893608093262e-01,-1.377699989825487137e-02,-2.057800069451332092e-02,-1.268700063228607178e-01,0.000000000000000000e+00,9.919189810752868652e-01
3.302949965000152588e-01,2.373149991035461426e-01,-1.478399988263845444e-02,-4.329200088977813721e-02,0.000000000000000000e+00,-9.990620017051696777e-01
2.626819908618927002e-01,7.933899760246276855e-02,-1.216499973088502884e-02,-3.727599978446960449e-02,-0.000000000000000000e+00,-9.993050098419189453e-01
6.054599955677986145e-02,-4.459750056266784668e-01,-1.431840062141418457e-01,0.000000000000000000e+00,-1.917379945516586304e-01,-9.814460277557373047e-01
1.000590026378631592e-01,6.133040189743041992e-01,-1.526499986648559570e-01,1.000000000000000000e+00,0.000000000000000000e+00,-0.000000000000000000e+00
1.660040020942687988e-01,-5.940179824829101562e-01,2.339800074696540833e-02,5.064300075173377991e-02,0.000000000000000000e+00,9.987170100212097168e-01
2.019699960947036743e-01,-6.884179711341857910e-01,2.945559918880462646e-01,9.881299734115600586e-02,0.000000000000000000e+00,-9.951059818267822266e-01
5.648000165820121765e-02,7.533249855041503906e-01,2.754200063645839691e-02,0.000000000000000000e+00,5.743899941444396973e-02,9.983490109443664551e-01
-6.277279853820800781e-01,4.466500133275985718e-02,-1.828400045633316040e-02,3.676399961113929749e-02,0.000000000000000000e+00,-9.993240237236022949e-01
2.565920054912567139e-01,3.913159966468811035e-01,1.543700043112039566e-02,4.879840016365051270e-01,8.728529810905456543e-01,-0.000000000000000000e+00
-8.088199794292449951e-02,-4.569010138511657715e-01,-9.245900064706802368e-02,-9.987829923629760742e-01,0.000000000000000000e+00,4.931100085377693176e-02
-9.555199742317199707e-02,1.134800016880035400e-01,2.748199924826622009e-02,-1.429999974789097905e-04,9.999999974752427079e-07,1.000000000000000000e+00
-6.897299736738204956e-02,-1.263460069894790649e-01,-5.268200114369392395e-02,-9.131770133972167969e-01,0.000000000000000000e+00,4.075630009174346924e-01
-7.036129832267761230e-01,1.425829976797103882e-01,-1.275100000202655792e-02,-4.721370041370391846e-01,8.815249800682067871e-01,-1.019999981508590281e-04
-6.628700345754623413e-02,-4.382030069828033447e-01,-2.221100032329559326e-02,-1.000000000000000000e+00,-0.000000000000000000e+00,0.000000000000000000e+00
4.163689911365509033e-01,1.088870018720626831e-01,8.403000421822071075e-03,7.600899785757064819e-02,0.000000000000000000e+00,9.971070289611816406e-01
-1.911720037460327148e-01,2.061479985713958740e-01,2.659199945628643036e-02,-2.554799988865852356e-02,0.000000000000000000e+00,9.996740221977233887e-01
1.020459979772567749e-01,-6.377090215682983398e-01,3.075740039348602295e-01,-0.000000000000000000e+00,0.000000000000000000e+00,1.000000000000000000e+00
1.152810007333755493e-01,3.939610123634338379e-01,-7.755999919027090073e-03,-2.521600015461444855e-02,9.999999974752427079e-07,-9.996820092201232910e-01
9.718900173902511597e-02,3.316709995269775391e-01,-1.488849967718124390e-01,7.724660038948059082e-01,0.000000000000000000e+00,-6.350560188293457031e-01
1.120579987764358521e-01,-4.864340126514434814e-01,-1.097100004553794861e-01,9.987930059432983398e-01,0.000000000000000000e+00,4.910700023174285889e-02
-1.518239974975585938e-01,-5.989069938659667969e-01,-7.710000034421682358e-03,8.995000272989273071e-03,0.000000000000000000e+00,-9.999600052833557129e-01
9.548100084066390991e-02,6.671699881553649902e-01,3.060499951243400574e-02,0.000000000000000000e+00,5.408999975770711899e-03,9.999849796295166016e-01
8.899260163307189941e-01,-3.239999990910291672e-03,-5.114600062370300293e-02,-8.541700243949890137e-02,0.000000000000000000e+00,-9.963449835777282715e-01
-2.090300023555755615e-01,7.204200327396392822e-02,2.613499946892261505e-02,-2.554799988865852356e-02,0.000000000000000000e+00,9.996740221977233887e-01
-2.769500017166137695e-02,-4.704949855804443359e-01,2.682020068168640137e-01,0.000000000000000000e+00,4.481819868087768555e-01,-8.939419984817504883e-01
1.000590026378631592e-01,6.459569931030273438e-01,-5.823099985718727112e-02,1.000000000000000000e+00,-0.000000000000000000e+00,0.000000000000000000e+00
-7.377599924802780151e-02,4.528990089893341064e-01,-1.356689929962158203e-01,-9.486119747161865234e-01,-0.000000000000000000e+00,-3.164409995079040527e-01
5.280400067567825317e-02,-5.048519968986511230e-01,2.797429859638214111e-01,9.883199632167816162e-02,-3.999999989900970832e-06,-9.951040148735046387e-01
5.978990197181701660e-01,1.085909977555274963e-01,-2.889600023627281189e-02,-6.136500090360641479e-02,-0.000000000000000000e+00,-9.981150031089782715e-01
3.779700025916099548e-02,4.919820129871368408e-01,3.058899939060211182e-02,9.899349808692932129e-01,-9.000000318337697536e-06,1.415199935436248779e-01
1.000590026378631592e-01,6.061739921569824219e-01,-7.749599963426589966e-02,1.000000000000000000e+00,-0.000000000000000000e+00,0.000000000000000000e+00
9.661699831485748291e-02,7.274140119552612305e-01,-2.965399995446205139e-02,1.000000000000000000e+00,-0.000000000000000000e+00,0.000000000000000000e+00
-5.288700014352798462e-02,3.276129961013793945e-01,2.748800069093704224e-02,-1.429999974789097905e-04,-0.000000000000000000e+00,1.000000000000000000e+00
-8.211240172386169434e-01,-5.207199975848197937e-02,-1.628299988806247711e-02,-1.268700063228607178e-01,0.000000000000000000e+00,9.919189810752868652e-01
-4.802080094814300537e-01,9.373100101947784424e-02,1.502799987792968750e-02,-7.629700005054473877e-02,0.000000000000000000e+00,9.970849752426147461e-01
-4.220530092716217041e-01,2.933869957923889160e-01,6.738999858498573303e-03,-4.721420109272003174e-01,8.815230131149291992e-01,0.000000000000000000e+00
8.033599704504013062e-02,-6.566209793090820312e-01,-8.724799752235412598e-02,0.000000000000000000e+00,-3.159489929676055908e-01,-9.487760066986083984e-01
-7.336299866437911987e-02,-2.736659944057464600e-01,-9.757400304079055786e-02,-9.901970028877258301e-01,-1.396780014038085938e-01,9.999999747378751636e-06
2.794400043785572052e-02,-5.929340124130249023e-01,9.935899823904037476e-02,9.898890256881713867e-01,3.000000106112565845e-06,1.418450027704238892e-01
2.425999939441680908e-02,7.480559945106506348e-01,2.784500084817409515e-02,-0.000000000000000000e+00,5.743899941444396973e-02,9.983490109443664551e-01
-2.625530064105987549e-01,3.408670127391815186e-01,-8.925000205636024475e-03,1.362000033259391785e-02,0.000000000000000000e+00,-9.999070167541503906e-01
-6.610800027847290039e-01,1.653639972209930420e-01,-9.836000390350818634e-03,-4.721370041370391846e-01,8.815249800682067871e-01,-1.019999981508590281e-04
-5.682399868965148926e-02,1.957170069217681885e-01,-1.610909998416900635e-01,-7.724580168724060059e-01,9.999999974752427079e-07,-6.350659728050231934e-01
8.677600324153900146e-02,-6.825079917907714844e-01,-5.004699900746345520e-02,0.000000000000000000e+00,-1.000000000000000000e+00,0.000000000000000000e+00
3.146999981254339218e-03,-6.948750019073486328e-01,5.842199921607971191e-02,4.800000169780105352e-05,-8.539810180664062500e-01,-5.203040242195129395e-01
-7.508700340986251831e-02,7.333530187606811523e-01,-1.143110021948814392e-01,-1.000000000000000000e+00,0.000000000000000000e+00,0.000000000000000000e+00
-2.172860056161880493e-01,3.049690127372741699e-01,-8.307999931275844574e-03,1.362000033259391785e-02,0.000000000000000000e+00,-9.999070167541503906e-01
-7.970300316810607910e-02,-7.121130228042602539e-01,2.955279946327209473e-01,2.925199866294860840e-01,-9.562600255012512207e-01,0.000000000000000000e+00
9.661699831485748291e-02,-6.335179805755615234e-01,-2.991000004112720490e-02,1.000000000000000000e+00,-0.000000000000000000e+00,-0.000000000000000000e+00
-1.554760038852691650e-01,-6.825079917907714844e-01,2.866999944671988487e-03,0.000000000000000000e+00,-1.000000000000000000e+00,0.000000000000000000e+00
-3.410359919071197510e-01,1.234479993581771851e-01,-1.023199968039989471e-02,1.824999973177909851e-02,0.000000000000000000e+00,-9.998329877853393555e-01
-6.628700345754623413e-02,9.124200046062469482e-02,-2.413200028240680695e-02,-1.000000000000000000e+00,-0.000000000000000000e+00,0.000000000000000000e+00
6.446899771690368652e-01,7.116399705410003662e-02,-1.304499991238117218e-02,1.013249978423118591e-01,0.000000000000000000e+00,9.948530197143554688e-01
-3.021770119667053223e-01,8.223599940538406372e-02,1.435699965804815292e-02,-9.999999974752427079e-07,-2.407110035419464111e-01,9.705970287322998047e-01
4.932169914245605469e-01,3.490199893712997437e-02,-2.269300073385238647e-02,-5.533999949693679810e-02,-0.000000000000000000e+00,-9.984679818153381348e-01
-3.774029910564422607e-01,2.687849998474121094e-01,-1.095800008624792099e-02,2.288299985229969025e-02,9.999999974752427079e-07,-9.997379779815673828e-01
-1.450909972190856934e-01,3.391070067882537842e-01,2.747499942779541016e-02,-1.440000050934031606e-04,0.000000000000000000e+00,1.000000000000000000e+00
-6.977829933166503906e-01,-2.521100081503391266e-02,-2.102800086140632629e-02,4.138699918985366821e-02,0.000000000000000000e+00,-9.991430044174194336e-01
-7.688999921083450317e-02,3.226099908351898193e-02,-1.263339966535568237e-01,-9.486119747161865234e-01,-0.000000000000000000e+00,-3.164409995079040527e-01
1.117800027132034302e-01,-6.094200164079666138e-02,2.438999945297837257e-03,-0.000000000000000000e+00,0.000000000000000000e+00,1.000000000000000000e+00
-5.341399833559989929e-02,8.242020010948181152e-01,-1.495220065116882324e-01,-0.000000000000000000e+00,-5.277090072631835938e-01,-8.494250178337097168e-01
-1.622579991817474365e-01,-6.825079917907714844e-01,-1.599999959580600262e-03,0.000000000000000000e+00,-1.000000000000000000e+00,0.000000000000000000e+00
2.015160024166107178e-01,3.777030110359191895e-01,-1.012600027024745941e-02,-3.124899975955486298e-02,0.000000000000000000e+00,-9.995120167732238770e-01
-1.874990016222000122e-01,3.396080136299133301e-01,-8.030000142753124237e-03,8.995000272989273071e-03,0.000000000000000000e+00,-9.999600052833557129e-01
9.647300094366073608e-02,-2.746390104293823242e-01,-9.148400276899337769e-02,9.928249716758728027e-01,-1.195790022611618042e-01,3.000000106112565845e-06
9.661699831485748291e-02,6.099010109901428223e-01,-1.100100018084049225e-02,1.000000000000000000e+00,0.000000000000000000e+00,-0.000000000000000000e+00
5.886600166559219360e-02,-2.094710022211074829e-01,2.611999958753585815e-02,2.525799907743930817e-02,0.000000000000000000e+00,9.996809959411621094e-01
-9.903699904680252075e-02,3.257809877395629883e-01,-7.428000215440988541e-03,4.366999957710504532e-03,-9.999999974752427079e-07,-9.999899864196777344e-01
1.108950003981590271e-01,2.390760034322738647e-01,-1.152980029582977295e-01,9.486730098724365234e-01,0.000000000000000000e+00,-3.162580132484436035e-01
-8.140400052070617676e-02,-1.724700033664703369e-01,-1.030270010232925415e-01,-9.987829923629760742e-01,0.000000000000000000e+00,4.931100085377693176e-02
7.746899873018264771e-02,7.563530206680297852e-01,2.565000019967556000e-02,2.525899931788444519e-02,0.000000000000000000e+00,9.996809959411621094e-01
4.331099987030029297e-02,-5.608680248260498047e-01,2.651299908757209778e-02,2.524299919605255127e-02,0.000000000000000000e+00,9.996809959411621094e-01
5.161690115928649902e-01,7.686699926853179932e-02,4.400000034365803003e-05,1.013260036706924438e-01,-9.999999974752427079e-07,9.948530197143554688e-01
7.980999536812305450e-03,-6.825079917907714844e-01,-4.156000167131423950e-02,0.000000000000000000e+00,-1.000000000000000000e+00,0.000000000000000000e+00
-5.109599977731704712e-02,8.513159751892089844e-01,1.246299967169761658e-02,-9.755100011825561523e-01,2.199559956789016724e-01,1.999999994950485416e-06
2.635600045323371887e-02,-6.825079917907714844e-01,-5.843999981880187988e-02,0.000000000000000000e+00,-1.000000000000000000e+00,0.000000000000000000e+00
-3.609220087528228760e-01,1.920610070228576660e-01,-1.059500034898519516e-02,1.824999973177909851e-02,0.000000000000000000e+00,-9.998329877853393555e-01
-1.126400008797645569e-01,-7.130129933357238770e-01,3.075740039348602295e-01,0.000000000000000000e+00,0.000000000000000000e+00,1.000000000000000000e+00
7.198599725961685181e-02,9.186500310897827148e-02,-1.746660023927688599e-01,5.010449886322021484e-01,-7.000000096013536677e-06,-8.654209971427917480e-01
-7.508700340986251831e-02,5.472679734230041504e-01,-6.735099852085113525e-02,-1.000000000000000000e+00,0.000000000000000000e+00,0.000000000000000000e+00
3.722130060195922852e-01,6.363800168037414551e-02,1.176900044083595276e-02,7.600899785757064819e-02,0.000000000000000000e+00,9.971070289611816406e-01
4.507600143551826477e-02,-5.202739834785461426e-01,2.789759933948516846e-01,9.883199632167816162e-02,-3.999999989900970832e-06,-9.951040148735046387e-01
-5.048700049519538879e-02,6.124629974365234375e-01,3.034400008618831635e-02,0.000000000000000000e+00,-2.059599943459033966e-02,9.997879862785339355e-01
-1.797600090503692627e-02,1.124240010976791382e-01,2.184399962425231934e-02,0.000000000000000000e+00,-2.407200038433074951e-01,9.705939888954162598e-01
1.053949967026710510e-01,4.335489869117736816e-01,-1.317970007658004761e-01,9.486730098724365234e-01,0.000000000000000000e+00,-3.162580132484436035e-01
1.500000059604644775e-01,2.706640064716339111e-01,2.381700091063976288e-02,2.526099979877471924e-02,-0.000000000000000000e+00,9.996809959411621094e-01
-7.060900330543518066e-02,-3.607380092144012451e-01,-5.634700134396553040e-02,-9.131770133972167969e-01,0.000000000000000000e+00,4.075630009174346924e-01
-3.514600172638893127e-02,4.631919860839843750e-01,-1.685220003128051758e-01,0.000000000000000000e+00,1.078900042921304703e-02,-9.999420046806335449e-01
1.904810070991516113e-01,2.794820070266723633e-01,-9.781000204384326935e-03,-3.124899975955486298e-02,0.000000000000000000e+00,-9.995120167732238770e-01
2.217599935829639435e-02,-5.970690250396728516e-01,3.075740039348602295e-01,-0.000000000000000000e+00,0.000000000000000000e+00,1.000000000000000000e+00
-8.142799884080886841e-02,-5.343289971351623535e-01,-1.035090014338493347e-01,-9.987829923629760742e-01,0.000000000000000000e+00,4.931100085377693176e-02
-5.415250062942504883e-01,2.208119928836822510e-01,1.033599954098463058e-02,-7.629700005054473877e-02,0.000000000000000000e+00,9.970849752426147461e-01
-3.869659900665283203e-01,9.993699938058853149e-02,1.982600055634975433e-02,-5.093200132250785828e-02,6.000000212225131691e-06,9.987019896507263184e-01
1.117110028862953186e-01,-2.915219962596893311e-01,-1.128529980778694153e-01,9.487299919128417969e-01,0.000000000000000000e+00,-3.160870075225830078e-01
-6.628700345754623413e-02,-2.936900034546852112e-02,-9.510000236332416534e-03,-1.000000000000000000e+00,-0.000000000000000000e+00,0.000000000000000000e+00
2.028470039367675781e-01,-6.135900020599365234e-01,2.115000039339065552e-02,5.529710054397583008e-01,8.331980109214782715e-01,-2.130999928340315819e-03
-7.375200092792510986e-02,4.306700080633163452e-02,-6.339000165462493896e-02,-9.131770133972167969e-01,0.000000000000000000e+00,4.075630009174346924e-01
1.000590026378631592e-01,5.126670002937316895e-01,-7.691200077533721924e-02,1.000000000000000000e+00,0.000000000000000000e+00,0.000000000000000000e+00
-3.407999873161315918e-02,-3.515670001506805420e-01,2.749099954962730408e-02,-1.469999988330528140e-04,1.999999994950485416e-06,1.000000000000000000e+00
-2.432940006256103516e-01,2.214490026235580444e-01,2.525999955832958221e-02,-2.554799988865852356e-02,0.000000000000000000e+00,9.996740221977233887e-01
-1.745489984750747681e-01,-6.241750121116638184e-01,2.924320101737976074e-01,-9.904299676418304443e-02,0.000000000000000000e+00,-9.950829744338989258e-01
3.531400114297866821e-02,8.615409731864929199e-01,1.779000088572502136e-02,7.000000096013536677e-06,1.222029998898506165e-01,9.925050139427185059e-01
-3.414199948310852051e-01,2.074349969625473022e-01,2.214800007641315460e-02,-5.093099921941757202e-02,0.000000000000000000e+00,9.987019896507263184e-01
5.704000126570463181e-03,-1.278599947690963745e-01,2.438999945297837257e-03,-0.000000000000000000e+00,0.000000000000000000e+00,1.000000000000000000e+00
3.566100075840950012e-02,3.348900005221366882e-02,2.438999945297837257e-03,0.000000000000000000e+00,-0.000000000000000000e+00,1.000000000000000000e+00
-7.983999699354171753e-02,-4.500580132007598877e-01,-1.174810007214546204e-01,-9.486629962921142578e-01,-1.700000029813963920e-05,-3.162899911403656006e-01
-6.982100009918212891e-02,-5.202599987387657166e-02,2.438999945297837257e-03,0.000000000000000000e+00,-0.000000000000000000e+00,1.000000000000000000e+00
4.045790135860443115e-01,2.672660052776336670e-01,9.301999583840370178e-03,7.600899785757064819e-02,-0.000000000000000000e+00,9.971070289611816406e-01
8.041500300168991089e-02,3.575969934463500977e-01,-1.692859977483749390e-01,7.723860144615173340e-01,3.400000059627927840e-05,-6.351540088653564453e-01
3.518959879875183105e-01,2.470020055770874023e-01,1.331800036132335663e-02,7.600899785757064819e-02,0.000000000000000000e+00,9.971070289611816406e-01
-7.601000368595123291e-02,-5.204800143837928772e-02,-7.327000144869089127e-03,4.360000137239694595e-03,-0.000000000000000000e+00,-9.999909996986389160e-01
-6.581450104713439941e-01,1.669359952211380005e-01,-6.899999920278787613e-03,-4.721370041370391846e-01,8.815249800682067871e-01,-1.019999981508590281e-04
-5.598300099372863770e-01,9.528400003910064697e-02,8.936000056564807892e-03,-7.629700005054473877e-02,0.000000000000000000e+00,9.970849752426147461e-01
-7.924599945545196533e-02,4.456200078129768372e-02,-7.569999992847442627e-02,-9.131469726562500000e-01,0.000000000000000000e+00,4.076299965381622314e-01
-3.433400020003318787e-02,-5.284850001335144043e-01,2.749099954962730408e-02,-1.239999983226880431e-04,0.000000000000000000e+00,1.000000000000000000e+00
7.637800276279449463e-02,-5.296450257301330566e-01,1.622000010684132576e-03,5.529479980468750000e-01,8.332160115242004395e-01,-4.500000068219378591e-05
-7.625650167465209961e-01,1.149300020188093185e-02,-9.739999659359455109e-03,-1.016110032796859741e-01,0.000000000000000000e+00,9.948239922523498535e-01
-7.172999903559684753e-03,4.524200037121772766e-02,-1.897529959678649902e-01,-1.731510013341903687e-01,0.000000000000000000e+00,-9.848949909210205078e-01
8.968470096588134766e-01,2.691200003027915955e-02,-4.750100150704383850e-02,1.517840027809143066e-01,-0.000000000000000000e+00,9.884139895439147949e-01
-2.553139925003051758e-01,9.182500094175338745e-02,2.495200000703334808e-02,-2.554799988865852356e-02,0.000000000000000000e+00,9.996740221977233887e-01
-6.297700107097625732e-02,-5.366799831390380859e-01,3.063629865646362305e-01,-5.465899705886840820e-01,8.374000191688537598e-01,0.000000000000000000e+00
-9.422200173139572144e-02,-5.437999963760375977e-02,2.748199924826622009e-02,-1.429999974789097905e-04,-0.000000000000000000e+00,1.000000000000000000e+00
-4.906500130891799927e-02,5.486410260200500488e-01,2.748899906873703003e-02,-1.349999947706237435e-04,0.000000000000000000e+00,1.000000000000000000e+00
-2.269839942455291748e-01,2.362949997186660767e-01,2.567600086331367493e-02,-2.554799988865852356e-02,0.000000000000000000e+00,9.996740221977233887e-01
8.360589742660522461e-01,1.123400032520294189e-02,-4.652800038456916809e-02,-8.541700243949890137e-02,0.000000000000000000e+00,-9.963449835777282715e-01
9.281960129737854004e-01,-4.154599830508232117e-02,-5.463799834251403809e-02,-9.144300222396850586e-02,0.000000000000000000e+00,-9.958099722862243652e-01
1.209269985556602478e-01,-5.860210061073303223e-01,2.455200068652629852e-02,2.526200003921985626e-02,-0.000000000000000000e+00,9.996809959411621094e-01
8.672770261764526367e-01,-3.056999994441866875e-03,-4.920399934053421021e-02,-8.541700243949890137e-02,0.000000000000000000e+00,-9.963449835777282715e-01
-6.552569866180419922e-01,2.662999927997589111e-02,1.219999976456165314e-03,-1.016110032796859741e-01,0.000000000000000000e+00,9.948239922523498535e-01
6.069520115852355957e-01,1.557929962873458862e-01,-9.201999753713607788e-03,1.013260036706924438e-01,-9.999999974752427079e-07,9.948530197143554688e-01
